-37.0711 -6.50029 -138.767 0.784478 0.746875 0.741774
-52.1157 -1.2173 -98.2344 0.0020002 0.869587 0.850985
-40.7515 -1.51559 -99.2678 0.509951 0.49825 0.0415042
-54.0393 -4.09023 -135.099 0.228323 0.0412041 0.705271
-33.275 -2.65539 -126.688 0.89889 0.658166 0.822382
-26.9803 -2.98983 -110.479 0.505351 0.366337 0.181618
-17.961 -4.86175 -110.657 0.273727 0.944794 0.372437
-26.374 -9.23593 -127.61 0.915192 0.213021 0.755076
-35.5513 -1.55486 -121.521 0.0973097 0.567757 0.984798
-31.1235 -1.69522 -125.649 0.872187 0.618462 0.960196
-33.0574 -1.51775 -114.201 0.0973097 0.567757 0.984798
-35.2342 -1.50843 -106.738 0.509951 0.49825 0.0415042
-46.4224 -1.21781 -93.5714 0.0020002 0.869587 0.850985
-29.8109 -8.27775 -131.021 0.560856 0.0108011 0.410941
-29.8099 -7.05586 -131.84 0.560856 0.0108011 0.410941
-16.638 -7.45221 -126.476 0.0773077 0.367737 0.841384
-42.2029 -3.99754 -133.182 0.0747075 0.773077 0.944994
-36.5013 -3.16764 -132.064 0.631663 0.557456 0.739974
-21.7761 -7.70166 -126.5 0.0773077 0.367737 0.841384
-26.8245 -1.50653 -117.564 0.0973097 0.567757 0.984798
-40.6046 -2.37654 -130.01 0.631663 0.557456 0.739974
-8.0935 -15.265 -126.46 0.0773077 0.367737 0.841384
-7.10872 -6.20951 -126.46 0.0773077 0.367737 0.841384
-43.0196 -2.48352 -130.232 0.631663 0.557456 0.739974
-44.3992 -5.04287 -134.484 0.0747075 0.773077 0.944994
-26.0793 -3.6513 -126.494 0.0773077 0.367737 0.841384
-55.8594 -5.85687 -138.134 0.631663 0.557456 0.739974
-35.726 -1.55198 -121.056 0.0973097 0.567757 0.984798
-31.1312 -2.43652 -129.435 0.0778078 0.00860086 0.665467
-15.6801 -2.46951 -126.406 0.0773077 0.367737 0.841384
-8.64015 -11.5901 -126.459 0.0773077 0.367737 0.841384
-35.0439 -1.5164 -97.3997 0.509951 0.49825 0.0415042
-29.5973 -1.69254 -112.741 0.0973097 0.567757 0.984798
-44.1166 -2.64436 -130.786 0.631663 0.557456 0.739974
-42.0576 -1.51067 -103.968 0.509951 0.49825 0.0415042
-17.9131 -1.69737 -122.841 0.171317 0.876288 0.425243
-32.0079 -2.14204 -128.781 0.0778078 0.00860086 0.665467
-33.7341 -1.51683 -97.4115 0.509951 0.49825 0.0415042
-14.3674 -5.67012 -110.674 0.273727 0.944794 0.372437
-47.7073 -2.00885 -129.378 0.631663 0.557456 0.739974
-32.8313 -1.51309 -101.033 0.509951 0.49825 0.0415042
-29.4784 -1.50335 -117.025 0.0973097 0.567757 0.984798
-29.7369 -1.6885 -110.846 0.0973097 0.567757 0.984798
-30.9862 -1.53839 -119.064 0.0973097 0.567757 0.984798
-34.5936 -4.00141 -134 0.631663 0.557456 0.739974
-26.8204 -1.5076 -114.576 0.0973097 0.567757 0.984798
-8.86498 -14.6806 -126.463 0.0773077 0.367737 0.841384
-40.6014 -1.69418 -113.328 0.0973097 0.567757 0.984798
-42.2549 -1.69508 -113.048 0.0973097 0.567757 0.984798
-28.0263 -4.70298 -126.496 0.0773077 0.367737 0.841384
-36.2534 -2.88276 -131.392 0.631663 0.557456 0.739974
-44.9675 -7.85618 -137.793 0.243924 0.769777 0.909691
-21.7333 -9.27644 -126.502 0.0773077 0.367737 0.841384
-53.1624 -7.01788 -138.327 0.939094 0.834683 0.331433
-33.3514 -1.51669 -97.412 0.509951 0.49825 0.0415042
-20.4989 -2.39632 -118.354 0 0 0
-17.4117 -4.50991 -110.747 0.273727 0.944794 0.372437
-56.1241 -1.21876 -92.0963 0.748975 0.716172 0.0715072
-8.83071 -13.9332 -126.459 0.0773077 0.367737 0.841384
-33.3433 -1.52617 -116.085 0.0973097 0.567757 0.984798
-50.1882 -1.2152 -104.903 0.0020002 0.869587 0.850985
-49.1827 -1.2146 -107.118 0.0020002 0.869587 0.850985
-49.8094 -1.21561 -100.527 0.0020002 0.869587 0.850985
-34.6026 -1.52224 -91.1276 0.509951 0.49825 0.0415042
-19.6567 -6.59313 -126.5 0.0773077 0.367737 0.841384
-14.2285 -8.92154 -110.677 0.273727 0.944794 0.372437
-51.5998 -1.21495 -96.8925 0.0020002 0.869587 0.850985
-35.3156 -4.99972 -136.074 0.631663 0.557456 0.739974
-48.8341 -7.78067 -137.828 0.0747075 0.773077 0.944994
-15.3632 -2.81457 -126.405 0.0773077 0.367737 0.841384
-37.4035 -1.51001 -106.271 0.509951 0.49825 0.0415042
-24.0817 -1.50791 -117.571 0.0973097 0.567757 0.984798
-11.2293 -6.39456 -126.632 0.0842084 0.538654 0.348835
-30.9817 -2.95097 -131.115 0.0778078 0.00860086 0.665467
-29.8101 -4.67219 -131.179 0.560856 0.0108011 0.410941
-49.9656 -1.66316 -113.79 0.0973097 0.567757 0.984798
-31.5642 -3.58365 -133.032 0.631663 0.557456 0.739974
-19.3145 -3.21487 -126.38 0.0773077 0.367737 0.841384
-37.0682 -1.7758 -117.588 0.547155 0.0945095 0.640564
-29.8059 -11.6491 -136.318 0.560856 0.0108011 0.410941
-34.3976 -1.51249 -102.413 0.509951 0.49825 0.0415042
-11.2915 -3.96624 -126.416 0.0773077 0.367737 0.841384
-22.4446 -7.08938 -126.5 0.0773077 0.367737 0.841384
-21.8461 -3.27985 -110.467 0.882888 0.987899 0.150915
-19.9219 -1.51223 -121.559 0.0973097 0.567757 0.984798
-22.9516 -1.50908 -117.192 0.0973097 0.567757 0.984798
-7.06204 -10.5396 -126.462 0.0773077 0.367737 0.841384
-29.9618 -2.17103 -128.374 0.0778078 0.00860086 0.665467
-35.8416 -1.51669 -97.3987 0.509951 0.49825 0.0415042
-48.2718 -2.65352 -131.251 0.693269 0.450945 0.320632
-37.0224 -4.42864 -134.536 0.784478 0.746875 0.741774
-24.1344 -2.04081 -110.568 0.273727 0.944794 0.372437
-54.552 -1.21989 -102.656 0.0020002 0.869587 0.850985
-33.7094 -1.69591 -126.543 0.872187 0.618462 0.960196
-44.6578 -8.33893 -138.511 0.243924 0.769777 0.909691
-33.4921 -1.69397 -124.577 0.872187 0.618462 0.960196
-29.8062 -7.86773 -135.797 0.560856 0.0108011 0.410941
-38.3995 -1.51026 -104.576 0.509951 0.49825 0.0415042
-29.8091 -12.3756 -132.57 0.560856 0.0108011 0.410941
-38.21 -1.69507 -124.55 0.872187 0.618462 0.960196
-7.04972 -8.066 -126.457 0.0773077 0.367737 0.841384
-9.35466 -11.6904 -127.571 0.0654065 0.689469 0.116912
-18.6471 -7.25173 -126.496 0.0773077 0.367737 0.841384
-36.1347 -1.69076 -109.526 0.0973097 0.567757 0.984798
-44.054 -2.29282 -129.904 0.631663 0.557456 0.739974
-54.5243 -1.21948 -97.0413 0.0020002 0.869587 0.850985
-29.8061 -4.86624 -135.388 0.560856 0.0108011 0.410941
-38.6723 -1.69435 -123.551 0.872187 0.618462 0.960196
-29.8098 -8.01974 -131.31 0.560856 0.0108011 0.410941
-44.4164 -7.49075 -137.383 0.243924 0.769777 0.909691
-38.8748 -5.93024 -136.654 0.784478 0.746875 0.741774
-8.11457 -3.89353 -126.445 0.0773077 0.367737 0.841384
-45.887 -2.64105 -130.874 0.631663 0.557456 0.739974
-7.6836 -1.9879 -109.584 0 0 0
-49.836 -1.21534 -105.392 0.0020002 0.869587 0.850985
-33.9471 -1.51602 -98.0869 0.509951 0.49825 0.0415042
-29.1993 -2.64174 -126.5 0.0773077 0.367737 0.841384
-54.4978 -1.21937 -92.2638 0.0020002 0.869587 0.850985
-36.4175 -2.64832 -130.756 0.631663 0.557456 0.739974
-7.68383 -8.30844 -126.459 0.0773077 0.367737 0.841384
-24.4883 -5.14777 -110.674 0.273727 0.944794 0.372437
-55.7882 -1.8593 -113.117 0 0 0
-7.04433 -15.7358 -126.462 0.0773077 0.367737 0.841384
-38.3815 -1.50812 -107.534 0.509951 0.49825 0.0415042
-30.052 -1.69261 -123.058 0.872187 0.618462 0.960196
-16.9499 -10.0262 -126.479 0.0773077 0.367737 0.841384
-38.1791 -1.51516 -99.5536 0.509951 0.49825 0.0415042
-51.9666 -1.7036 -113.152 0.0973097 0.567757 0.984798
-15.2174 -1.69977 -112.903 0 0 0
-31.2531 -3.54603 -132.876 0.631663 0.557456 0.739974
-36.6731 -3.36118 -126.623 0.89889 0.658166 0.822382
-29.8098 -10.1677 -132.264 0.560856 0.0108011 0.410941
-29.8106 -11.4003 -131.758 0.560856 0.0108011 0.410941
-44.0613 -6.22335 -135.929 0.0747075 0.773077 0.944994
-51.9542 -1.70364 -111.412 0.0973097 0.567757 0.984798
-9.09612 -8.30695 -126.762 0.458846 0.462046 0.389339
-13.3955 -5.23866 -126.462 0.0773077 0.367737 0.841384
-11.1149 -2.44574 -118.457 0 0 0
-36.0976 -3.03847 -131.775 0.631663 0.557456 0.739974
-46.9445 -4.22529 -133.589 0.234123 0.0387039 0.928193
-51.9421 -1.70377 -109.906 0.0973097 0.567757 0.984798
-14.9736 -9.16328 -110.677 0.273727 0.944794 0.372437
-55.0533 -1.21979 -92.9003 0.0020002 0.869587 0.850985
-43.301 -1.69637 -126.117 0.872187 0.618462 0.960196
-48.5335 -6.95216 -136.844 0.0747075 0.773077 0.944994
-49.1676 -1.21429 -103.356 0.0020002 0.869587 0.850985
-11.1709 -2.40668 -126.421 0.0773077 0.367737 0.841384
-49.6803 -5.17879 -135.14 0.939094 0.834683 0.331433
-51.5119 -6.50901 -137.085 0.939094 0.834683 0.331433
-25.5943 -1.50617 -117.497 0.0973097 0.567757 0.984798
-34.4341 -1.51823 -95.8676 0.509951 0.49825 0.0415042
-27.0506 -2.86861 -126.502 0.0773077 0.367737 0.841384
-44.6209 -1.21097 -104.387 0.0020002 0.869587 0.850985
-35.776 -5.92893 -137.989 0.784478 0.746875 0.741774
-37.2219 -1.51656 -97.7397 0.509951 0.49825 0.0415042
-35.7837 -2.43138 -119.022 0.988499 0.809081 0.453845
-46.1979 -1.69893 -112.923 0.0973097 0.567757 0.984798
-46.4996 -1.69907 -112.352 0.0973097 0.567757 0.984798
-28.7565 -2.25503 -126.501 0.0773077 0.367737 0.841384
-10.8273 -1.70364 -125.598 0.171317 0.876288 0.425243
-39.0995 -2.58416 -126.681 0.89889 0.658166 0.822382
-48.1468 -1.64706 -120.095 0.0973097 0.567757 0.984798
-21.8673 -6.54356 -110.667 0.273727 0.944794 0.372437
-35.8048 -6.42224 -139.162 0.784478 0.746875 0.741774
-26.6147 -5.74598 -126.663 0.918992 0.808381 0.553755
-30.272 -1.55132 -121.366 0.0973097 0.567757 0.984798
-38.5366 -1.69271 -122.789 0.872187 0.618462 0.960196
-55.0352 -5.23675 -136.986 0.631663 0.557456 0.739974
-38.0633 -1.9906 -128.602 0.0778078 0.00860086 0.665467
-31.6817 -2.12933 -126.622 0.89889 0.658166 0.822382
-49.9833 -6.9733 -137.208 0.939094 0.834683 0.331433
-45.7439 -1.21497 -95.9221 0.0020002 0.869587 0.850985
-20.0691 -1.51247 -118.51 0.0973097 0.567757 0.984798
-26.2741 -5.45192 -110.7 0.273727 0.944794 0.372437
-22.7992 -7.35361 -126.494 0.0773077 0.367737 0.841384
-37.1201 -1.51163 -102.57 0.509951 0.49825 0.0415042
-48.4652 -1.65029 -116.569 0.0973097 0.567757 0.984798
-51.5806 -2.54818 -131.742 0.464146 0.648265 0.039604
-17.8133 -6.77825 -110.492 0 0 0
-45.9406 -4.96231 -134.401 0.0747075 0.773077 0.944994
-28.9267 -7.54008 -126.5 0.0773077 0.367737 0.841384
-54.9516 -6.96647 -139.065 0.143114 0.746275 0.20262
-8.27654 -1.70578 -126.117 0.171317 0.876288 0.425243
-8.27559 -1.70602 -125.423 0.171317 0.876288 0.425243
-53.0162 -3.90806 -134.518 0.228323 0.0412041 0.705271
-8.2613 -2.70125 -113.036 0 0 0
-42.0895 -4.33924 -133.711 0.0747075 0.773077 0.944994
-55.0297 -1.22041 -90.2891 0.0020002 0.869587 0.850985
-29.1935 -1.50353 -116.739 0.0973097 0.567757 0.984798
-50.1638 -1.21599 -101.614 0.0020002 0.869587 0.850985
-29.814 -9.02671 -127.528 0.560856 0.0108011 0.410941
-18.3274 -3.12951 -126.478 0.0773077 0.367737 0.841384
-35.0419 -2.29225 -129.462 0.0778078 0.00860086 0.665467
-9.09184 -7.80343 -127.569 0.0654065 0.689469 0.116912
-33.7983 -2.95345 -126.685 0.89889 0.658166 0.822382
-10.429 -3.77443 -126.447 0.0773077 0.367737 0.841384
-48.4775 -1.65006 -118.277 0.0973097 0.567757 0.984798
-39.6925 -1.69384 -123.439 0.872187 0.618462 0.960196
-23.0434 -1.50964 -117.987 0.0973097 0.567757 0.984798
-28.2772 -1.69498 -125.663 0.872187 0.618462 0.960196
-23.8984 -4.64189 -110.661 0.273727 0.944794 0.372437
-32.1809 -2.0566 -128.477 0.0778078 0.00860086 0.665467
-16.1052 -4.17101 -126.477 0.0773077 0.367737 0.841384
-45.3958 -1.6164 -116.862 0.0973097 0.567757 0.984798
-17.1392 -1.69768 -124.774 0.171317 0.876288 0.425243
-21.3422 -5.47693 -126.494 0.0773077 0.367737 0.841384
-51.6267 -5.58775 -136.118 0.939094 0.834683 0.331433
-38.4305 -1.51672 -97.3851 0.509951 0.49825 0.0415042
-27.2642 -2.23666 -117.39 0.138314 0.49605 0.915892
-26.5721 -1.88954 -126.497 0.0773077 0.367737 0.841384
-9.3336 -13.7989 -127.566 0.0654065 0.689469 0.116912
-38.1688 -1.51387 -101.016 0.509951 0.49825 0.0415042
-33.3866 -4.08802 -134.305 0.631663 0.557456 0.739974
-25.6796 -3.76234 -126.498 0.0773077 0.367737 0.841384
-44.0005 -7.96812 -138.141 0.243924 0.769777 0.909691
-38.9846 -2.64799 -130.733 0.631663 0.557456 0.739974
-14.2398 -4.86421 -110.654 0.273727 0.944794 0.372437
-7.13495 -9.35406 -126.459 0.0773077 0.367737 0.841384
-33.1037 -1.51173 -103.967 0.509951 0.49825 0.0415042
-38.0165 -3.24835 -126.688 0.89889 0.658166 0.822382
-45.2097 -4.64229 -134.008 0.0747075 0.773077 0.944994
-7.67857 -5.15766 -126.457 0.0773077 0.367737 0.841384
-45.3471 -1.6977 -110.233 0.0973097 0.567757 0.984798
-16.5412 -4.14407 -110.507 0.568257 0.787179 0.584458
-33.7644 -4.21824 -134.704 0.631663 0.557456 0.739974
-37.7254 -1.51486 -100.079 0.509951 0.49825 0.0415042
-47.6059 -7.3759 -137.202 0.243924 0.769777 0.909691
-34.6378 -1.50775 -106.809 0.509951 0.49825 0.0415042
-9.05923 -7.73242 -126.462 0.0773077 0.367737 0.841384
-33.3758 -1.69316 -123.578 0.872187 0.618462 0.960196
-45.39 -1.21103 -106.454 0.0020002 0.869587 0.850985
-42.7107 -2.64845 -130.667 0.631663 0.557456 0.739974
-42.7451 -1.69604 -110.083 0.0973097 0.567757 0.984798
-40.9668 -7.27905 -138.026 0.784478 0.746875 0.741774
-15.9614 -1.69901 -126.383 0.0773077 0.367737 0.841384
-51.7211 -1.21737 -104.836 0.0020002 0.869587 0.850985
-9.10085 -7.33342 -126.467 0.0773077 0.367737 0.841384
-46.9323 -7.88714 -137.744 0.243924 0.769777 0.909691
-9.73921 -10.123 -127.571 0.0654065 0.689469 0.116912
-45.9923 -1.21124 -100.813 0.0020002 0.869587 0.850985
-29.2921 -1.50381 -115.136 0.0973097 0.567757 0.984798
-18.4806 -2.60094 -126.499 0.0773077 0.367737 0.841384
-37.7255 -1.50863 -105.918 0.509951 0.49825 0.0415042
-32.9986 -1.54895 -120.757 0.0973097 0.567757 0.984798
-21.9932 -1.69392 -112.077 0.0973097 0.567757 0.984798
-25.9218 -5.4465 -110.699 0.273727 0.944794 0.372437
-32.033 -1.50984 -106.45 0.509951 0.49825 0.0415042
-29.8104 -6.84733 -130.533 0.560856 0.0108011 0.410941
-42.0021 -6.57119 -136.692 0.0747075 0.773077 0.944994
-51.1117 -7.29444 -137.883 0.939094 0.834683 0.331433
-42.7568 -1.69529 -111.373 0.0973097 0.567757 0.984798
-51.6924 -1.21692 -98.4823 0.0020002 0.869587 0.850985
-42.0467 -1.51186 -103.247 0.509951 0.49825 0.0415042
-17.0816 -1.69844 -111.856 0.0973097 0.567757 0.984798
-45.6531 -2.37534 -130.252 0.631663 0.557456 0.739974
-45.4795 -1.21464 -96.2654 0.0020002 0.869587 0.850985
-42.7587 -1.69578 -112.752 0.0973097 0.567757 0.984798
-22.4248 -4.15912 -126.494 0.0773077 0.367737 0.841384
-36.594 -1.51047 -104.931 0.509951 0.49825 0.0415042
-45.9721 -1.21192 -96.7393 0.0020002 0.869587 0.850985
-47.2291 -1.21689 -93.994 0.0020002 0.869587 0.850985
-29.6552 -1.69451 -124.451 0.872187 0.618462 0.960196
-34.1874 -1.68733 -113.319 0.0973097 0.567757 0.984798
-49.5036 -1.2147 -105.756 0.0020002 0.869587 0.850985
-32.8119 -1.69525 -125.475 0.872187 0.618462 0.960196
-8.46158 -13.5135 -126.461 0.0773077 0.367737 0.841384
-50.3294 -5.06854 -135.166 0.939094 0.834683 0.331433
-36.034 -1.53883 -113.591 0.0973097 0.567757 0.984798
-40.1001 -1.50867 -106.086 0.509951 0.49825 0.0415042
-51.6527 -1.2171 -91.3484 0.0020002 0.869587 0.850985
-33.9598 -1.52718 -116.679 0.0973097 0.567757 0.984798
-32.8873 -1.68884 -110.559 0.0973097 0.567757 0.984798
-27.3817 -4.91743 -110.551 0.273727 0.944794 0.372437
-23.9705 -9.87843 -127.565 0.915192 0.213021 0.755076
-24.0103 -6.59842 -126.666 0.918992 0.808381 0.553755
-33.7733 -5.3684 -137.031 0.631663 0.557456 0.739974
-32.4495 -1.69492 -124.437 0.872187 0.618462 0.960196
-38.8379 -1.69421 -123.904 0.872187 0.618462 0.960196
-14.7008 -3.48549 -110.653 0.273727 0.944794 0.372437
-45.8787 -7.66844 -137.465 0.243924 0.769777 0.909691
-45.3222 -1.78819 -128.187 0.872187 0.618462 0.960196
-47.3838 -6.45221 -136.176 0.0747075 0.773077 0.944994
-37.1307 -1.68996 -112.239 0.0973097 0.567757 0.984798
-20.3318 -5.24843 -126.485 0.0773077 0.367737 0.841384
-39.4569 -1.69305 -109.629 0.0973097 0.567757 0.984798
-49.4757 -1.21465 -99.9173 0.0020002 0.869587 0.850985
-30.5717 -1.69014 -110.673 0.0973097 0.567757 0.984798
-39.4308 -1.50904 -107.934 0.509951 0.49825 0.0415042
-15.8805 -4.10697 -110.505 0.568257 0.787179 0.584458
-48.7618 -3.15583 -132.288 0.693269 0.450945 0.320632
-27.6239 -5.73228 -126.499 0.0773077 0.367737 0.841384
-35.5922 -2.15356 -128.989 0.0778078 0.00860086 0.665467
-46.7569 -4.97132 -134.502 0.0747075 0.773077 0.944994
-44.6226 -1.21142 -105.619 0.0020002 0.869587 0.850985
-34.1006 -4.1289 -134.4 0.631663 0.557456 0.739974
-35.6671 -1.50793 -107.282 0.509951 0.49825 0.0415042
-33.6637 -1.51217 -102.232 0.509951 0.49825 0.0415042
-52.2915 -1.21534 -95.8932 0.0020002 0.869587 0.850985
-14.4916 -7.36352 -126.467 0.0773077 0.367737 0.841384
-47.9303 -5.74219 -135.468 0.0747075 0.773077 0.944994
-39.5156 -2.76328 -131.019 0.631663 0.557456 0.739974
-15.9466 -1.69938 -122.875 0.171317 0.876288 0.425243
-23.3345 -1.69254 -112.104 0.0973097 0.567757 0.984798
-46.518 -7.5098 -137.272 0.243924 0.769777 0.909691
-49.8485 -1.21502 -107.305 0.0020002 0.869587 0.850985
-30.6864 -3.42933 -110.609 0.273727 0.944794 0.372437
-33.1822 -3.38484 -126.621 0.89889 0.658166 0.822382
-19.764 -1.69517 -111.615 0.0973097 0.567757 0.984798
-36.4001 -1.51503 -99.2837 0.509951 0.49825 0.0415042
-35.7784 -3.10271 -131.935 0.631663 0.557456 0.739974
-47.8515 -2.44968 -130.736 0.228323 0.0412041 0.705271
-40.3176 -1.50934 -107.486 0.509951 0.49825 0.0415042
-20.6787 -5.68396 -126.474 0.0773077 0.367737 0.841384
-19.447 -7.96402 -127.594 0.140014 0.509751 0.144714
-9.09789 -12.4185 -126.732 0.458846 0.462046 0.389339
-52.5986 -4.95051 -135.696 0.939094 0.834683 0.331433
-52.4219 -3.5592 -133.788 0.228323 0.0412041 0.705271
-32.2535 -5.55451 -137.642 0.631663 0.557456 0.739974
-32.9677 -3.811 -133.675 0.631663 0.557456 0.739974
-38.0366 -1.55252 -116.85 0.0973097 0.567757 0.984798
-32.0197 -5.90528 -138.515 0.631663 0.557456 0.739974
-30.081 -5.25704 -136.709 0.631663 0.557456 0.739974
-43.98 -2.17154 -129.515 0.631663 0.557456 0.739974
-51.6674 -1.2174 -94.7452 0.0020002 0.869587 0.850985
-44.2815 -1.21078 -107.042 0.0020002 0.869587 0.850985
-44.2784 -1.20997 -104.787 0.0020002 0.869587 0.850985
-24.8652 -4.33811 -110.471 0.882888 0.987899 0.150915
-23.1648 -4.62236 -110.66 0.273727 0.944794 0.372437
-24.8737 -3.18284 -110.469 0.882888 0.987899 0.150915
-45.0524 -6.72713 -136.436 0.243924 0.769777 0.909691
-38.9705 -1.52214 -91.747 0.509951 0.49825 0.0415042
-53.7559 -1.21682 -94.7819 0.0020002 0.869587 0.850985
-22.8702 -4.66075 -126.498 0.0773077 0.367737 0.841384
-48.2648 -1.21442 -106.91 0.0020002 0.869587 0.850985
-51.7336 -7.23959 -138.047 0.939094 0.834683 0.331433
-30.4437 -1.53732 -119.125 0.0973097 0.567757 0.984798
-15.6277 -1.6992 -125.631 0.171317 0.876288 0.425243
-48.8299 -1.21464 -99.632 0.0020002 0.869587 0.850985
-34.8093 -1.55824 -122.127 0.0973097 0.567757 0.984798
-27.9285 -2.06775 -117.402 0.138314 0.49605 0.915892
-48.9078 -3.5753 -132.966 0.631663 0.557456 0.739974
-53.5346 -3.56795 -134.201 0.228323 0.0412041 0.705271
-15.5874 -6.75813 -110.49 0 0 0
-24.4996 -3.11254 -110.469 0.882888 0.987899 0.150915
-34.0367 -2.12849 -126.619 0.89889 0.658166 0.822382
-17.8529 -5.54164 -126.497 0.0773077 0.367737 0.841384
-21.9093 -5.59725 -110.736 0.273727 0.944794 0.372437
-24.7479 -3.87276 -126.494 0.0773077 0.367737 0.841384
-13.4723 -6.4363 -126.467 0.0773077 0.367737 0.841384
-8.07128 -4.61708 -126.462 0.0773077 0.367737 0.841384
-12.8916 -9.12858 -126.465 0.0773077 0.367737 0.841384
-18.787 -1.69696 -112.623 0.0973097 0.567757 0.984798
-51.2406 -4.36427 -134.575 0.631663 0.557456 0.739974
-54.5259 -1.2199 -98.2186 0.0020002 0.869587 0.850985
-15.1132 -5.67195 -110.601 0.273727 0.944794 0.372437
-34.096 -3.38472 -126.63 0.89889 0.658166 0.822382
-36.5745 -1.69011 -111.049 0.0973097 0.567757 0.984798
-21.9787 -5.24187 -126.493 0.0773077 0.367737 0.841384
-33.5838 -1.51517 -98.7127 0.509951 0.49825 0.0415042
-33.7434 -1.53437 -118.213 0.0973097 0.567757 0.984798
-40.5107 -1.56983 -117.909 0.0973097 0.567757 0.984798
-31.04 -1.69306 -123.702 0.872187 0.618462 0.960196
-37.4596 -1.51149 -103.377 0.509951 0.49825 0.0415042
-31.7785 -1.69068 -110.651 0.0973097 0.567757 0.984798
-44.8564 -1.21426 -97.5267 0.0020002 0.869587 0.850985
-47.3322 -1.21168 -100.418 0.0020002 0.869587 0.850985
-35.2259 -1.68925 -113.071 0.0973097 0.567757 0.984798
-22.5308 -6.71369 -110.557 0 0 0
-22.9491 -6.69675 -126.499 0.0773077 0.367737 0.841384
-32.2283 -4.34029 -134.884 0.631663 0.557456 0.739974
-36.1955 -1.91868 -126.619 0.89889 0.658166 0.822382
-13.785 -3.24349 -126.404 0.0773077 0.367737 0.841384
-52.52 -1.21776 -91.3759 0.0020002 0.869587 0.850985
-29.8138 -6.88715 -128.027 0.560856 0.0108011 0.410941
-36.1227 -1.5097 -105.456 0.509951 0.49825 0.0415042
-45.2607 -5.29326 -134.798 0.0747075 0.773077 0.944994
-42.2393 -8.10732 -139.039 0.784478 0.746875 0.741774
-47.1314 -1.69953 -109.686 0.0973097 0.567757 0.984798
-29.6413 -1.5182 -113.696 0.0973097 0.567757 0.984798
-27.2502 -4.29859 -110.571 0.273727 0.944794 0.372437
-25.9305 -2.66584 -126.497 0.0773077 0.367737 0.841384
-30.7587 -1.52529 -116.159 0.0973097 0.567757 0.984798
-34.1142 -1.68698 -111.403 0.0973097 0.567757 0.984798
-35.2643 -1.5165 -98.0851 0.509951 0.49825 0.0415042
-28.6541 -6.38532 -126.502 0.0773077 0.367737 0.841384
-41.2715 -4.78425 -134.425 0.0747075 0.773077 0.944994
-45.9041 -1.69839 -111.936 0.0973097 0.567757 0.984798
-52.9921 -1.67566 -113.661 0.0973097 0.567757 0.984798
-33.4167 -2.3527 -129.401 0.0778078 0.00860086 0.665467
-40.0216 -1.50943 -104.731 0.509951 0.49825 0.0415042
-54.0269 -1.21905 -102.192 0.0020002 0.869587 0.850985
-47.8512 -1.69995 -112.518 0.0973097 0.567757 0.984798
-39.9328 -1.56546 -115.944 0.0973097 0.567757 0.984798
-21.4336 -4.75424 -110.685 0.273727 0.944794 0.372437
-20.0699 -1.51225 -119.11 0.0973097 0.567757 0.984798
-40.2934 -2.2559 -129.561 0.631663 0.557456 0.739974
-9.54825 -14.3992 -127.569 0.0654065 0.689469 0.116912
-17.4218 -1.51468 -122.239 0.0973097 0.567757 0.984798
-47.9404 -1.21421 -98.0486 0.0020002 0.869587 0.850985
-49.4899 -1.21476 -103.058 0.0020002 0.869587 0.850985
-23.9703 -9.43598 -127.357 0.444744 0.189619 0.0616062
-13.2289 -11.1951 -126.465 0.0773077 0.367737 0.841384
-14.9411 -2.10258 -126.359 0.0773077 0.367737 0.841384
-25.5753 -2.41641 -126.496 0.0773077 0.367737 0.841384
-20.5127 -1.51187 -118.39 0.0973097 0.567757 0.984798
-18.9046 -3.2085 -126.496 0.0773077 0.367737 0.841384
-46.9149 -1.21228 -100.486 0.0020002 0.869587 0.850985
-34.1846 -1.54589 -120.382 0.0973097 0.567757 0.984798
-28.1354 -1.6897 -112.663 0.0973097 0.567757 0.984798
-49.8102 -1.21583 -101.153 0.0020002 0.869587 0.850985
-28.9642 -9.62765 -126.498 0.0773077 0.367737 0.841384
-41.2705 -2.45422 -130.241 0.631663 0.557456 0.739974
-17.9088 -8.45602 -110.68 0.273727 0.944794 0.372437
-23.7105 -3.29628 -126.501 0.0773077 0.367737 0.841384
-47.0077 -6.17301 -135.848 0.0747075 0.773077 0.944994
-38.551 -1.51581 -98.0607 0.509951 0.49825 0.0415042
-54.4615 -5.02784 -136.456 0.631663 0.557456 0.739974
-16.5685 -6.50412 -110.675 0.273727 0.944794 0.372437
-31.8769 -1.68742 -112.033 0.0973097 0.567757 0.984798
-22.1673 -3.99187 -110.467 0.882888 0.987899 0.150915
-31.3598 -3.0624 -110.555 0.273727 0.944794 0.372437
-42.0802 -1.69559 -110.552 0.0973097 0.567757 0.984798
-37.7919 -5.48804 -136.255 0.784478 0.746875 0.741774
-30.4736 -1.52908 -117.37 0.0973097 0.567757 0.984798
-36.3316 -1.54256 -117.15 0.0973097 0.567757 0.984798
-45.1312 -1.21552 -96.2758 0.0020002 0.869587 0.850985
-35.6863 -1.91886 -126.619 0.89889 0.658166 0.822382
-53.9952 -6.3684 -137.877 0.939094 0.834683 0.331433
-29.8094 -9.47719 -132.174 0.560856 0.0108011 0.410941
-31.8572 -1.528 -117.126 0.0973097 0.567757 0.984798
-15.2622 -10.4446 -126.476 0.0773077 0.367737 0.841384
-42.0364 -1.58341 -118.854 0.0973097 0.567757 0.984798
-41.6393 -1.5149 -99.2566 0.509951 0.49825 0.0415042
-9.01105 -14.1003 -126.695 0.458846 0.462046 0.389339
-21.436 -5.8253 -110.667 0.273727 0.944794 0.372437
-29.3466 -3.11745 -110.561 0.273727 0.944794 0.372437
-55.9064 -1.21829 -92.5907 0.0020002 0.869587 0.850985
-19.5882 -1.5119 -120.85 0.0973097 0.567757 0.984798
-28.6425 -3.00318 -126.497 0.0773077 0.367737 0.841384
-21.9952 -1.51037 -118.472 0.0973097 0.567757 0.984798
-41.9161 -5.99614 -135.952 0.0747075 0.773077 0.944994
-51.6664 -1.21715 -94.0559 0.0020002 0.869587 0.850985
-11.875 -4.36654 -126.464 0.0773077 0.367737 0.841384
-29.4428 -2.32336 -126.499 0.0773077 0.367737 0.841384
-43.7151 -1.69608 -111.57 0.0973097 0.567757 0.984798
-25.7314 -5.3062 -126.497 0.0773077 0.367737 0.841384
-34.2283 -1.52927 -113.994 0.0973097 0.567757 0.984798
-26.5867 -1.69558 -125.665 0.872187 0.618462 0.960196
-28.943 -3.27214 -126.501 0.0773077 0.367737 0.841384
-45.492 -1.20975 -101.862 0.0020002 0.869587 0.850985
-26.2191 -1.69086 -112.434 0.0973097 0.567757 0.984798
-29.8093 -5.92733 -131.694 0.560856 0.0108011 0.410941
-31.5003 -1.69473 -125.013 0.872187 0.618462 0.960196
-49.2214 -5.86804 -135.866 0.939094 0.834683 0.331433
-37.7332 -1.50932 -106.734 0.509951 0.49825 0.0415042
-54.7383 -4.03581 -135.274 0.228323 0.0412041 0.705271
-8.2816 -7.97514 -126.46 0.0773077 0.367737 0.841384
-10.9208 -6.98611 -126.628 0.0842084 0.538654 0.348835
-18.2845 -1.51384 -118.811 0.0973097 0.567757 0.984798
-53.1805 -4.93909 -135.871 0.631663 0.557456 0.739974
-23.3848 -6.42485 -126.493 0.0773077 0.367737 0.841384
-42.243 -5.66865 -135.476 0.0747075 0.773077 0.944994
-15.6281 -1.69907 -125.987 0.171317 0.876288 0.425243
-48.2476 -1.21362 -101.617 0.0020002 0.869587 0.850985
-44.6032 -1.69704 -112.024 0.0973097 0.567757 0.984798
-49.1541 -1.2144 -100.742 0.0020002 0.869587 0.850985
-19.3899 -1.69617 -110.963 0.0973097 0.567757 0.984798
-30.2913 -5.9938 -138.529 0.631663 0.557456 0.739974
-7.68961 -7.01838 -126.457 0.0773077 0.367737 0.841384
-49.7164 -8.22654 -138.58 0.0747075 0.773077 0.944994
-29.8107 -7.48497 -130.615 0.560856 0.0108011 0.410941
-41.1909 -1.51464 -99.8018 0.509951 0.49825 0.0415042
-29.3268 -3.24961 -126.498 0.0773077 0.367737 0.841384
-35.8197 -1.68907 -112.245 0.0973097 0.567757 0.984798
-9.12532 -14.9396 -127.567 0.458846 0.462046 0.389339
-38.2295 -1.69233 -111.799 0.0973097 0.567757 0.984798
-21.9934 -1.51084 -117.152 0.0973097 0.567757 0.984798
-12.964 -12.5395 -126.466 0.0773077 0.367737 0.841384
-42.0091 -1.51709 -96.6241 0.509951 0.49825 0.0415042
-48.1204 -1.64708 -115.39 0.0973097 0.567757 0.984798
-46.3641 -1.6281 -115.903 0.0973097 0.567757 0.984798
-47.0153 -2.81491 -131.419 0.693269 0.450945 0.320632
-34.0471 -1.52172 -91.7738 0.509951 0.49825 0.0415042
-45.1892 -1.2117 -107.063 0.0020002 0.869587 0.850985
-7.22889 -14.3111 -126.462 0.0773077 0.367737 0.841384
-48.4765 -1.64979 -117.504 0.0973097 0.567757 0.984798
-47.6976 -1.21403 -105.055 0.0020002 0.869587 0.850985
-16.1703 -10.1292 -126.474 0.0773077 0.367737 0.841384
-37.3011 -1.69327 -123.916 0.872187 0.618462 0.960196
-15.027 -7.81739 -110.677 0.273727 0.944794 0.372437
-35.0063 -1.53254 -114.829 0.0973097 0.567757 0.984798
-13.1052 -6.31205 -126.467 0.0773077 0.367737 0.841384
-16.575 -1.69863 -125.21 0.171317 0.876288 0.425243
-37.4056 -4.98057 -135.413 0.784478 0.746875 0.741774
-12.8856 -1.70221 -126.393 0.0773077 0.367737 0.841384
-47.4846 -1.64093 -115.624 0.0973097 0.567757 0.984798
-37.1268 -3.03827 -131.744 0.631663 0.557456 0.739974
-6.60298 -15.4065 -126.462 0.0773077 0.367737 0.841384
-43.0864 -7.13385 -137.197 0.0747075 0.773077 0.944994
-31.1634 -3.10493 -131.639 0.631663 0.557456 0.739974
-48.6579 -4.66733 -134.388 0.939094 0.834683 0.331433
-6.69293 -8.09588 -126.458 0.0773077 0.367737 0.841384
-6.64795 -2.7609 -126.457 0.0773077 0.367737 0.841384
-31.1077 -3.4771 -126.676 0.89889 0.658166 0.822382
-40.1172 -1.56768 -117.908 0.0973097 0.567757 0.984798
-16.4929 -3.6605 -110.505 0.568257 0.787179 0.584458
-41.2785 -1.57606 -118.39 0.0973097 0.567757 0.984798
-51.7546 -2.82807 -132.387 0.228323 0.0412041 0.705271
-14.2189 -3.93582 -110.655 0.273727 0.944794 0.372437
-39.0417 -1.51599 -98.06 0.509951 0.49825 0.0415042
-14.2833 -8.4983 -110.677 0.273727 0.944794 0.372437
-6.42543 -8.75974 -126.46 0.0773077 0.367737 0.841384
-42.4597 -1.58707 -118.358 0.0973097 0.567757 0.984798
-10.539 -4.79423 -126.461 0.0773077 0.367737 0.841384
-22.7339 -6.31467 -110.671 0.273727 0.944794 0.372437
-49.8595 -3.29613 -132.716 0.228323 0.0412041 0.705271
-30.2782 -1.69506 -124.722 0.872187 0.618462 0.960196
-16.5077 -1.69853 -112.513 0.0973097 0.567757 0.984798
-37.2951 -6.40707 -138.402 0.784478 0.746875 0.741774
-25.0496 -1.50696 -117.433 0.0973097 0.567757 0.984798
-27.3378 -1.68953 -111.848 0.0973097 0.567757 0.984798
-29.9613 -2.75448 -130.254 0.0778078 0.00860086 0.665467
-51.2914 -1.21677 -100.221 0.0020002 0.869587 0.850985
-9.89215 -8.00829 -127.569 0.0654065 0.689469 0.116912
-27.1046 -6.82142 -126.5 0.0773077 0.367737 0.841384
-35.5784 -3.38419 -126.628 0.89889 0.658166 0.822382
-48.1966 -1.21307 -98.3392 0.0020002 0.869587 0.850985
-51.3687 -1.67234 -121.562 0.0973097 0.567757 0.984798
-51.2783 -1.21689 -97.9744 0.0020002 0.869587 0.850985
-11.3815 -1.70337 -125.297 0.171317 0.876288 0.425243
-24.967 -1.69121 -111.166 0.0973097 0.567757 0.984798
-21.5239 -6.36346 -126.498 0.0773077 0.367737 0.841384
-26.3184 -2.8983 -115.197 0 0 0
-41.1602 -1.51054 -104.019 0.509951 0.49825 0.0415042
-39.5005 -5.85278 -136.35 0.873387 0.0765077 0.359136
-16.3668 -5.57656 -126.477 0.0773077 0.367737 0.841384
-48.066 -8.65435 -138.789 0.243924 0.769777 0.909691
-43.1327 -4.21973 -133.472 0.0747075 0.773077 0.944994
-30.961 -1.55219 -121.547 0.0973097 0.567757 0.984798
-47.1297 -3.85626 -133.127 0.234123 0.0387039 0.928193
-36.6945 -2.31558 -117.585 0.547155 0.0945095 0.640564
-15.6128 -5.16993 -126.48 0.0773077 0.367737 0.841384
-31.521 -2.21716 -128.882 0.0778078 0.00860086 0.665467
-39.4026 -1.51609 -98.3822 0.509951 0.49825 0.0415042
-51.3446 -1.67269 -118.591 0.0973097 0.567757 0.984798
-14.8103 -9.80253 -110.804 0 0 0
-45.1773 -1.2165 -94.4202 0.0020002 0.869587 0.850985
-38.8408 -5.58195 -136.044 0.784478 0.746875 0.741774
-14.9075 -4.46505 -126.466 0.0773077 0.367737 0.841384
-29.8082 -11.5718 -133.575 0.560856 0.0108011 0.410941
-46.0851 -2.81946 -131.323 0.631663 0.557456 0.739974
-40.2584 -1.51431 -99.8031 0.509951 0.49825 0.0415042
-29.424 -1.69364 -123.705 0.872187 0.618462 0.960196
-46.8114 -1.6994 -111.701 0.0973097 0.567757 0.984798
-17.3836 -5.03781 -110.656 0.273727 0.944794 0.372437
-43.7031 -1.69664 -110.011 0.0973097 0.567757 0.984798
-26.3079 -5.48883 -126.671 0.918992 0.808381 0.553755
-29.8087 -10.8312 -133.469 0.560856 0.0108011 0.410941
-24.0219 -1.50888 -118.23 0.0973097 0.567757 0.984798
-40.268 -1.69287 -112.925 0.0973097 0.567757 0.984798
-19.9069 -1.5122 -117.852 0.0973097 0.567757 0.984798
-18.6197 -1.69721 -123.388 0.171317 0.876288 0.425243
-38.4092 -5.59826 -136.188 0.784478 0.746875 0.741774
-31.2035 -4.25741 -110.552 0.273727 0.944794 0.372437
-16.3394 -9.20697 -110.708 0.273727 0.944794 0.372437
-16.1445 -3.00268 -110.506 0.568257 0.787179 0.584458
-18.0387 -2.74018 -114.134 0 0 0
-50.9704 -1.21429 -97.4984 0.0020002 0.869587 0.850985
-31.324 -2.52819 -110.554 0.273727 0.944794 0.372437
-13.7646 -11.7304 -126.467 0.0773077 0.367737 0.841384
-20.4509 -3.30807 -110.466 0.882888 0.987899 0.150915
-36.95 -2.14637 -129.087 0.0778078 0.00860086 0.665467
-53.8087 -1.70533 -110.645 0.0973097 0.567757 0.984798
-41.7889 -2.8526 -131.179 0.631663 0.557456 0.739974
-13.0376 -7.22342 -126.466 0.0773077 0.367737 0.841384
-22.3471 -1.69418 -112.863 0.0973097 0.567757 0.984798
-30.6072 -2.24481 -110.601 0.273727 0.944794 0.372437
-35.4559 -3.3705 -132.576 0.631663 0.557456 0.739974
-9.3124 -2.50882 -126.448 0.0773077 0.367737 0.841384
-48.8562 -1.21417 -104.24 0.0020002 0.869587 0.850985
-34.6487 -5.11121 -136.442 0.631663 0.557456 0.739974
-38.047 -2.17078 -117.545 0.547155 0.0945095 0.640564
-42.1621 -1.58407 -114.735 0.0973097 0.567757 0.984798
-39.7939 -7.31776 -138.738 0.784478 0.746875 0.741774
-46.8226 -1.69882 -112.572 0.0973097 0.567757 0.984798
-37.0053 -1.54469 -115.496 0.0973097 0.567757 0.984798
-24.9998 -1.50676 -117.836 0.0973097 0.567757 0.984798
-21.0093 -4.06492 -126.389 0.0773077 0.367737 0.841384
-47.483 -1.6405 -114.44 0.0973097 0.567757 0.984798
-48.8425 -1.21426 -101.539 0.0020002 0.869587 0.850985
-40.2674 -1.69272 -112.519 0.0973097 0.567757 0.984798
-20.4599 -1.6955 -111.755 0.0973097 0.567757 0.984798
-41.6895 -8.10029 -139.22 0.784478 0.746875 0.741774
-37.623 -1.54962 -116.999 0.0973097 0.567757 0.984798
-47.2478 -2.38433 -130.503 0.228323 0.0412041 0.705271
-43.0711 -1.59201 -115.122 0.0973097 0.567757 0.984798
-39.7728 -2.56542 -130.469 0.631663 0.557456 0.739974
-40.4193 -1.50935 -108.083 0.509951 0.49825 0.0415042
-49.4357 -1.21508 -92.5318 0.0020002 0.869587 0.850985
-32.019 -1.52319 -116.399 0.0973097 0.567757 0.984798
-49.1681 -1.21441 -103.693 0.0020002 0.869587 0.850985
-39.0423 -1.55893 -114.242 0.0973097 0.567757 0.984798
-7.70914 -15.3521 -126.463 0.0773077 0.367737 0.841384
-52.6383 -7.75988 -139.04 0.939094 0.834683 0.331433
-49.1842 -3.33321 -132.663 0.693269 0.450945 0.320632
-32.6261 -1.68851 -110.076 0.0973097 0.567757 0.984798
-32.7939 -1.68756 -111.205 0.0973097 0.567757 0.984798
-49.7489 -1.21515 -96.5823 0.0020002 0.869587 0.850985
-37.8115 -2.91374 -131.394 0.631663 0.557456 0.739974
-20.3318 -1.82255 -118.818 0 0 0
-39.3476 -1.50857 -106.043 0.509951 0.49825 0.0415042
-26.1541 -2.95222 -110.594 0.273727 0.944794 0.372437
-37.1287 -1.56098 -122.336 0.0973097 0.567757 0.984798
-29.8119 -6.458 -129.897 0.560856 0.0108011 0.410941
-30.9108 -1.7825 -127.516 0.872187 0.618462 0.960196
-18.0875 -1.51366 -122.319 0.0973097 0.567757 0.984798
-40.7386 -1.91212 -128.255 0.0778078 0.00860086 0.665467
-36.2616 -1.51924 -94.5038 0.509951 0.49825 0.0415042
-29.8096 -5.50243 -131.296 0.560856 0.0108011 0.410941
-20.0881 -5.09951 -110.667 0.273727 0.944794 0.372437
-16.3 -6.09189 -126.477 0.0773077 0.367737 0.841384
-33.9021 -1.68828 -110.76 0.0973097 0.567757 0.984798
-48.1596 -1.64694 -122.152 0.0973097 0.567757 0.984798
-23.5916 -9.25483 -126.497 0.0773077 0.367737 0.841384
-17.6411 -7.13119 -121.516 0 0 0
-16.8556 -1.69806 -123.801 0.171317 0.876288 0.425243
-18.6142 -4.95674 -110.657 0.273727 0.944794 0.372437
-20.1057 -8.1543 -110.668 0.273727 0.944794 0.372437
-38.4512 -1.51034 -104.202 0.509951 0.49825 0.0415042
-33.9478 -1.51918 -94.517 0.509951 0.49825 0.0415042
-20.848 -7.40483 -110.558 0 0 0
-30.8594 -3.8054 -133.495 0.631663 0.557456 0.739974
-51.9901 -3.89397 -134.144 0.228323 0.0412041 0.705271
-22.9623 -4.00418 -110.468 0.882888 0.987899 0.150915
-49.1136 -1.21477 -93.0496 0.0020002 0.869587 0.850985
-22.1942 -6.48723 -126.493 0.0773077 0.367737 0.841384
-55.9344 -1.21949 -91.0377 0 0 0
-13.8071 -6.34269 -126.467 0.0773077 0.367737 0.841384
-17.8628 -7.65063 -127.607 0.140014 0.509751 0.144714
-12.2342 -11.1675 -126.465 0.0773077 0.367737 0.841384
-8.91362 -2.70701 -126.442 0.0773077 0.367737 0.841384
-55.0066 -3.57858 -134.704 0.228323 0.0412041 0.705271
-49.1924 -1.65655 -116.83 0.0973097 0.567757 0.984798
-50.8258 -8.49307 -139.229 0.939094 0.834683 0.331433
-15.96 -1.69938 -125.366 0.171317 0.876288 0.425243
-32.0337 -1.53498 -118.437 0.0973097 0.567757 0.984798
-16.8148 -3.8293 -126.374 0.0773077 0.367737 0.841384
-33.9648 -3.20133 -132.092 0.631663 0.557456 0.739974
-17.3045 -10.0104 -110.957 0 0 0
-26.9846 -1.69008 -111.741 0.0973097 0.567757 0.984798
-15.6065 -3.66098 -126.403 0.0773077 0.367737 0.841384
-34.302 -1.50998 -104.823 0.509951 0.49825 0.0415042
-31.1867 -1.52818 -117.096 0.0973097 0.567757 0.984798
-25.0966 -7.95818 -127.779 0 0 0
-39.3467 -1.5611 -115.426 0.0973097 0.567757 0.984798
-35.9249 -1.69542 -125.461 0.872187 0.618462 0.960196
-29.8128 -2.6777 -128.127 0.560856 0.0108011 0.410941
-34.4663 -5.79238 -137.902 0.631663 0.557456 0.739974
-28.6779 -8.50448 -126.494 0.0773077 0.367737 0.841384
-46.8091 -1.6988 -110.013 0.0973097 0.567757 0.984798
-37.0781 -1.69031 -110.599 0.0973097 0.567757 0.984798
-37.572 -1.69145 -110.286 0.0973097 0.567757 0.984798
-43.3344 -8.44663 -139.212 0.784478 0.746875 0.741774
-28.6467 -1.83904 -117.366 0.138314 0.49605 0.915892
-29.8103 -8.95402 -131.431 0.560856 0.0108011 0.410941
-42.5217 -6.3077 -136.244 0.0747075 0.773077 0.944994
-36.9484 -1.68974 -111.702 0.0973097 0.567757 0.984798
-27.667 -1.50821 -114.323 0.0973097 0.567757 0.984798
-44.1342 -1.60337 -117.29 0.0973097 0.567757 0.984798
-29.3272 -1.68901 -112.52 0.0973097 0.567757 0.984798
-31.5226 -1.55674 -122.071 0.0973097 0.567757 0.984798
-50.6144 -7.46841 -137.926 0.939094 0.834683 0.331433
-23.0054 -8.88255 -126.5 0.0773077 0.367737 0.841384
-32.3293 -2.71453 -130.619 0.0778078 0.00860086 0.665467
-29.815 -8.82844 -126.635 0.560856 0.0108011 0.410941
-16.2807 -8.7315 -126.48 0.0773077 0.367737 0.841384
-49.0167 -2.2608 -130.458 0.464146 0.648265 0.039604
-55.32 -6.90901 -139.189 0.143114 0.746275 0.20262
-34.8644 -3.65737 -133.259 0.631663 0.557456 0.739974
-37.732 -1.69223 -109.256 0.0973097 0.567757 0.984798
-30.0903 -3.36852 -132.28 0.631663 0.557456 0.739974
-42.8132 -1.89387 -128.452 0.0778078 0.00860086 0.665467
-44.7553 -3.1968 -131.895 0.631663 0.557456 0.739974
-22.4842 -3.75931 -126.422 0.0773077 0.367737 0.841384
-51.6646 -1.21669 -92.754 0.0020002 0.869587 0.850985
-46.4331 -5.29932 -134.858 0.0747075 0.773077 0.944994
-40.8526 -5.80168 -135.939 0.873387 0.0765077 0.359136
-24.9353 -3.02706 -126.495 0.0773077 0.367737 0.841384
-37.3765 -1.54873 -113.673 0.0973097 0.567757 0.984798
-37.5205 -1.69048 -109.609 0.0973097 0.567757 0.984798
-46.5016 -1.215 -96.264 0.0020002 0.869587 0.850985
-36.2064 -1.54047 -114.221 0.0973097 0.567757 0.984798
-25.0975 -6.04996 -110.673 0.273727 0.944794 0.372437
-35.2901 -5.50144 -137.137 0.631663 0.557456 0.739974
-56.0104 -3.04677 -134.2 0.228323 0.0412041 0.705271
-47.2906 -8.70556 -138.827 0.243924 0.769777 0.909691
-17.4624 -8.40559 -126.478 0.0773077 0.367737 0.841384
-45.4328 -1.21903 -92.1609 0.0020002 0.869587 0.850985
-53.4803 -6.05785 -137.293 0.939094 0.834683 0.331433
-35.9595 -1.69028 -111.087 0.0973097 0.567757 0.984798
-37.8742 -1.55119 -116.192 0.0973097 0.567757 0.984798
-47.4966 -1.64057 -117.112 0.0973097 0.567757 0.984798
-46.1143 -1.62546 -117.934 0.0973097 0.567757 0.984798
-23.3781 -1.88536 -110.564 0.273727 0.944794 0.372437
-34.9984 -1.51567 -98.7108 0.509951 0.49825 0.0415042
-29.3963 -1.50691 -119.697 0.0973097 0.567757 0.984798
-34.7091 -1.69016 -111.064 0.0973097 0.567757 0.984798
-29.7657 -2.93324 -110.473 0.885089 0.340034 0.680668
-28.9614 -3.63661 -110.605 0.273727 0.944794 0.372437
-23.9712 -8.72179 -127.375 0.444744 0.189619 0.0616062
-51.2767 -1.21648 -96.8101 0.0020002 0.869587 0.850985
-14.6245 -6.33819 -126.467 0.0773077 0.367737 0.841384
-38.552 -3.79557 -133.282 0.631663 0.557456 0.739974
-35.7102 -2.18991 -117.595 0.547155 0.0945095 0.640564
-26.2373 -3.86596 -110.515 0.505351 0.366337 0.181618
-48.6297 -8.76654 -139.095 0.0747075 0.773077 0.944994
-29.8144 -6.42701 -126.818 0.560856 0.0108011 0.410941
-41.7133 -3.74523 -132.838 0.0747075 0.773077 0.944994
-47.9205 -8.23457 -138.221 0.243924 0.769777 0.909691
-8.24141 -8.90807 -126.459 0.0773077 0.367737 0.841384
-52.4914 -6.62248 -137.572 0.939094 0.834683 0.331433
-24.5766 -4.89812 -126.496 0.0773077 0.367737 0.841384
-15.2852 -1.69937 -125.965 0.171317 0.876288 0.425243
-15.2825 -1.70008 -123.996 0.171317 0.876288 0.425243
-43.4187 -1.59532 -118.38 0.0973097 0.567757 0.984798
-48.4673 -1.21641 -95.1923 0.0020002 0.869587 0.850985
-40.1585 -1.85019 -128.077 0.0778078 0.00860086 0.665467
-44.9416 -1.61251 -116.884 0.0973097 0.567757 0.984798
-33.9459 -1.51295 -101.859 0.509951 0.49825 0.0415042
-19.608 -2.03356 -110.66 0.273727 0.944794 0.372437
-48.6734 -4.20165 -133.805 0.939094 0.834683 0.331433
-16.8351 -8.49977 -126.475 0.0773077 0.367737 0.841384
-24.2176 -4.12222 -110.502 0.882888 0.987899 0.150915
-17.4957 -8.93197 -127.371 0 0 0
-38.6868 -1.51603 -98.6957 0.509951 0.49825 0.0415042
-39.3509 -1.50945 -108.485 0.509951 0.49825 0.0415042
-43.9547 -1.60118 -119.008 0.0973097 0.567757 0.984798
-17.3698 -7.40143 -110.635 0.273727 0.944794 0.372437
-8.77854 -12.7014 -126.461 0.0773077 0.367737 0.841384
-39.5097 -1.51647 -97.7266 0.509951 0.49825 0.0415042
-8.75005 -2.12042 -113.101 0 0 0
-41.3263 -1.67147 -127.568 0.872187 0.618462 0.960196
-7.79024 -6.16379 -126.462 0.0773077 0.367737 0.841384
-52.3043 -1.21504 -96.5688 0.0020002 0.869587 0.850985
-28.7932 -2.08728 -117.626 0 0 0
-36.6447 -1.69188 -110.599 0.0973097 0.567757 0.984798
-30.2552 -1.69242 -122.766 0.872187 0.618462 0.960196
-42.7597 -1.58889 -116.288 0.0973097 0.567757 0.984798
-15.115 -6.3582 -110.564 0 0 0
-10.4973 -6.44101 -126.628 0.0842084 0.538654 0.348835
-6.68193 -5.37857 -126.458 0.0773077 0.367737 0.841384
-33.063 -1.52638 -116.882 0.0973097 0.567757 0.984798
-18.3262 -8.07067 -127.601 0.140014 0.509751 0.144714
-20.9231 -1.69513 -111.231 0.0973097 0.567757 0.984798
-41.9886 -1.69503 -125.132 0.872187 0.618462 0.960196
-38.0882 -5.82123 -136.741 0.784478 0.746875 0.741774
-22.5244 -5.64691 -126.495 0.0773077 0.367737 0.841384
-15.1718 -9.73628 -110.77 0.273727 0.944794 0.372437
-29.7786 -8.16696 -126.499 0.0773077 0.367737 0.841384
-36.7016 -1.69601 -126.529 0.872187 0.618462 0.960196
-46.7211 -1.90916 -128.882 0.631663 0.557456 0.739974
-40.1373 -1.51558 -98.6838 0.509951 0.49825 0.0415042
-34.1563 -5.57682 -137.461 0.631663 0.557456 0.739974
-38.2871 -1.6927 -109.567 0.0973097 0.567757 0.984798
-25.8402 -4.91965 -126.497 0.0773077 0.367737 0.841384
-40.103 -1.56827 -114.761 0.0973097 0.567757 0.984798
-11.0917 -3.64103 -126.449 0.0773077 0.367737 0.841384
-37.3398 -1.56186 -122.659 0.0973097 0.567757 0.984798
-47.7965 -1.64362 -114.844 0.0973097 0.567757 0.984798
-37.9419 -1.51149 -103.81 0.509951 0.49825 0.0415042
-40.3465 -4.92414 -134.777 0.873387 0.0765077 0.359136
-19.6072 -9.12256 -110.682 0.273727 0.944794 0.372437
-21.8368 -2.10731 -110.562 0.273727 0.944794 0.372437
-32.2442 -1.50948 -105.159 0.509951 0.49825 0.0415042
-19.1074 -9.55629 -110.683 0.273727 0.944794 0.372437
-45.8909 -1.6985 -109.583 0.0973097 0.567757 0.984798
-19.1881 -6.79956 -126.497 0.0773077 0.367737 0.841384
-49.9223 -1.21391 -97.4998 0.0020002 0.869587 0.850985
-35.7476 -1.50965 -106.515 0.509951 0.49825 0.0415042
-31.4842 -3.04186 -131.469 0.631663 0.557456 0.739974
-49.0077 -1.70143 -110.035 0.0973097 0.567757 0.984798
-51.2062 -3.44377 -133.27 0.228323 0.0412041 0.705271
-43.2333 -1.59415 -115.514 0.0973097 0.567757 0.984798
-49.4778 -1.21522 -101.491 0.0020002 0.869587 0.850985
-50.9127 -1.2168 -103.623 0.0020002 0.869587 0.850985
-8.02024 -11.783 -126.461 0.0773077 0.367737 0.841384
-38.4512 -2.79332 -131.085 0.631663 0.557456 0.739974
-38.29 -1.51569 -98.3837 0.509951 0.49825 0.0415042
-32.5724 -4.0503 -134.271 0.631663 0.557456 0.739974
-36.2075 -2.67179 -118.576 0.988499 0.809081 0.453845
-30.8727 -1.52716 -116.885 0.0973097 0.567757 0.984798
-42.9266 -2.03738 -129.025 0.631663 0.557456 0.739974
-32.2727 -1.5075 -107.71 0.509951 0.49825 0.0415042
-26.7074 -6.66013 -126.661 0.918992 0.808381 0.553755
-29.8109 -11.4955 -131.155 0.560856 0.0108011 0.410941
-21.6687 -3.63768 -110.468 0.882888 0.987899 0.150915
-45.7804 -1.95341 -129.02 0.631663 0.557456 0.739974
-16.8372 -2.24964 -110.656 0.273727 0.944794 0.372437
-10.7826 -5.40446 -126.461 0.0773077 0.367737 0.841384
-15.8995 -9.18384 -126.479 0.0773077 0.367737 0.841384
-14.5117 -9.61578 -110.731 0.273727 0.944794 0.372437
-32.0456 -1.69374 -123.147 0.872187 0.618462 0.960196
-54.4302 -1.21613 -94.771 0.0020002 0.869587 0.850985
-26.9953 -2.80119 -114.297 0 0 0
-10.1104 -3.12041 -126.444 0.0773077 0.367737 0.841384
-36.8928 -5.69458 -137.039 0.784478 0.746875 0.741774
-7.42974 -12.7607 -126.461 0.0773077 0.367737 0.841384
-15.9648 -7.12302 -126.478 0.0773077 0.367737 0.841384
-16.7015 -9.44648 -110.68 0.273727 0.944794 0.372437
-13.5759 -3.7681 -126.403 0.0773077 0.367737 0.841384
-15.5741 -8.03682 -126.475 0.0773077 0.367737 0.841384
-17.5947 -3.96861 -112.224 0 0 0
-47.8093 -1.64346 -116.856 0.0973097 0.567757 0.984798
-47.1854 -2.5486 -130.86 0.693269 0.450945 0.320632
-41.5088 -1.57898 -116.847 0.0973097 0.567757 0.984798
-33.8354 -4.73629 -135.699 0.631663 0.557456 0.739974
-37.0025 -1.51133 -103.377 0.509951 0.49825 0.0415042
-35.2003 -1.91904 -126.62 0.89889 0.658166 0.822382
-17.8591 -1.69699 -112.473 0.0973097 0.567757 0.984798
-7.33699 -10.9859 -126.461 0.0773077 0.367737 0.841384
-49.8839 -1.21636 -94.3938 0.0020002 0.869587 0.850985
-40.441 -1.51355 -101.003 0.509951 0.49825 0.0415042
-24.776 -5.49553 -110.672 0.273727 0.944794 0.372437
-20.4451 -1.87725 -118.377 0 0 0
-37.676 -1.69541 -125.62 0.872187 0.618462 0.960196
-19.0886 -2.54018 -110.658 0.273727 0.944794 0.372437
-46.7463 -1.21617 -94.8115 0.0020002 0.869587 0.850985
-29.8116 -4.35422 -128.838 0.560856 0.0108011 0.410941
-43.9289 -1.60196 -114.632 0.0973097 0.567757 0.984798
-46.6633 -1.63036 -120.831 0.0973097 0.567757 0.984798
-18.3562 -5.47568 -126.478 0.0773077 0.367737 0.841384
-17.5058 -9.93861 -126.474 0.0773077 0.367737 0.841384
-35.3823 -1.50666 -108.452 0.509951 0.49825 0.0415042
-17.9921 -9.69864 -127.59 0.140014 0.509751 0.144714
-35.2234 -1.68859 -111.249 0.0973097 0.567757 0.984798
-39.9909 -1.69312 -124.461 0.872187 0.618462 0.960196
-34.8925 -1.5155 -99.2958 0.509951 0.49825 0.0415042
-55.3112 -2.87098 -133.611 0.228323 0.0412041 0.705271
-50.1595 -8.68825 -139.325 0.939094 0.834683 0.331433
-50.1899 -5.58246 -135.737 0.939094 0.834683 0.331433
-35.7898 -4.28062 -134.508 0.631663 0.557456 0.739974
-13.4742 -10.7029 -126.462 0.0773077 0.367737 0.841384
-52.4662 -4.01688 -134.472 0.228323 0.0412041 0.705271
-24.419 -9.3825 -127.601 0.915192 0.213021 0.755076
-8.82847 -5.54392 -126.458 0.0773077 0.367737 0.841384
-52.2686 -5.84314 -136.615 0.939094 0.834683 0.331433
-32.4376 -1.51203 -103.091 0.509951 0.49825 0.0415042
-48.8557 -1.21405 -103.91 0.0020002 0.869587 0.850985
-34.5272 -1.51624 -98.4088 0.509951 0.49825 0.0415042
-14.9585 -8.50823 -126.48 0.0773077 0.367737 0.841384
-55.9058 -1.22064 -89.8779 0.0020002 0.869587 0.850985
-42.1789 -3.53163 -132.386 0.0747075 0.773077 0.944994
-49.5051 -1.21508 -106.818 0.0020002 0.869587 0.850985
-30.4202 -3.0054 -110.473 0.885089 0.340034 0.680668
-46.8983 -1.63454 -115.109 0.0973097 0.567757 0.984798
-49.5768 -3.57937 -133.098 0.631663 0.557456 0.739974
-40.712 -1.5721 -117.4 0.0973097 0.567757 0.984798
-48.7846 -2.16059 -130.122 0.464146 0.648265 0.039604
-35.1734 -1.69311 -123.687 0.872187 0.618462 0.960196
-6.77628 -12.1228 -126.461 0.0773077 0.367737 0.841384
-17.1878 -4.37601 -126.475 0.0773077 0.367737 0.841384
-36.3954 -1.68957 -112.907 0.0973097 0.567757 0.984798
-50.8743 -1.70244 -110.794 0.0973097 0.567757 0.984798
-32.9056 -1.51451 -100.347 0.509951 0.49825 0.0415042
-42.7616 -1.5894 -117.711 0.0973097 0.567757 0.984798
-29.6544 -1.52193 -116.321 0.0973097 0.567757 0.984798
-40.3523 -7.48452 -138.708 0.784478 0.746875 0.741774
-47.4045 -1.21286 -97.048 0.0020002 0.869587 0.850985
-51.0503 -5.83656 -136.228 0.939094 0.834683 0.331433
-54.55 -3.23726 -133.985 0.228323 0.0412041 0.705271
-29.8115 -11.6373 -130.599 0.560856 0.0108011 0.410941
-29.8725 -1.55258 -121.548 0.0973097 0.567757 0.984798
-28.2646 -5.19933 -126.5 0.0773077 0.367737 0.841384
-35.7866 -1.68889 -110.105 0.0973097 0.567757 0.984798
-39.1641 -1.50861 -106.652 0.509951 0.49825 0.0415042
-39.6931 -5.56318 -135.879 0.873387 0.0765077 0.359136
-45.984 -3.74303 -132.812 0.0747075 0.773077 0.944994
-6.38248 -10.4923 -126.459 0.0773077 0.367737 0.841384
-11.9061 -1.70288 -125.415 0.171317 0.876288 0.425243
-50.8346 -1.67031 -114.46 0.0973097 0.567757 0.984798
-39.9372 -1.51336 -101.004 0.509951 0.49825 0.0415042
-45.7802 -4.25624 -133.514 0.0747075 0.773077 0.944994
-33.0844 -4.93039 -136.179 0.631663 0.557456 0.739974
-26.5697 -2.14909 -117.442 0.138314 0.49605 0.915892
-8.74402 -2.5419 -111.71 0 0 0
-39.8471 -1.51416 -99.8036 0.509951 0.49825 0.0415042
-46.3591 -6.96176 -136.666 0.243924 0.769777 0.909691
-34.2958 -4.55519 -135.312 0.631663 0.557456 0.739974
-38.9045 -1.51233 -102.739 0.509951 0.49825 0.0415042
-20.9696 -6.23653 -126.492 0.0773077 0.367737 0.841384
-6.73758 -13.1221 -126.458 0.0773077 0.367737 0.841384
-38.0295 -1.50906 -108.161 0.509951 0.49825 0.0415042
-26.1472 -3.31778 -126.501 0.0773077 0.367737 0.841384
-40.2536 -1.69326 -109.699 0.0973097 0.567757 0.984798
